# .PCD v0.7 - Point Cloud Data file format
VERSION 0.7
FIELDS x y z rgba
SIZE 4 4 4 4
TYPE F F F U
COUNT 1 1 1 1
WIDTH 959
HEIGHT 1
VIEWPOINT 0 0 0 1 0 0 0
POINTS 959
DATA ascii
-0.032664031 -0.15374143 -0.17294647 9188397
-0.022556357 -0.15552598 -0.16736054 9714729
-0.013649984 -0.1583124 -0.16536233 7544349
-0.033832319 -0.14669971 -0.17009319 9582134
-0.022702293 -0.14712766 -0.16822107 8858909
-0.0095709516 -0.13826992 -0.16506368 6885126
-0.016902028 -0.12491366 -0.16662657 7806989
-0.012421637 -0.12656179 -0.16689108 6430475
-0.017075697 -0.11855006 -0.16675602 6363401
-0.014011757 -0.11904217 -0.16512634 5968134
-0.030308973 -0.17066613 -0.1528466 10168086
-0.021418281 -0.1683996 -0.15540224 8594453
-0.013409585 -0.1680672 -0.15899566 8005400
-0.033744004 -0.15387173 -0.15488507 8668211
-0.022079187 -0.15736334 -0.15758358 8331281
-0.012269113 -0.16041146 -0.16117664 8003346
-0.035790544 -0.14664389 -0.15516096 8600104
-0.021952044 -0.14247058 -0.15534772 7477771
-0.012208387 -0.13913971 -0.15957852 7147782
-0.021788836 -0.12787446 -0.15792899 8003600
-0.010187066 -0.1286757 -0.15852833 6165766
-0.019568283 -0.11774 -0.16063967 6363402
-0.012756304 -0.1167018 -0.1613535 4789768
0.012871832 -0.19777389 -0.13676079 5508615
0.015720084 -0.19887578 -0.13580677 7344394
-0.0041710986 -0.18561262 -0.13743824 7937297
0.011481322 -0.18724103 -0.13757075 8526357
0.020637937 -0.18339591 -0.13793726 8723735
0.032890089 -0.18200994 -0.13654004 10170409
-0.033333253 -0.16866818 -0.14255784 8922647
-0.025447365 -0.17006853 -0.14172868 8136470
-0.0037623476 -0.17304818 -0.1387956 8268063
0.0051586791 -0.17040601 -0.13947673 7149580
0.020798199 -0.17732777 -0.13806349 8002577
0.034522455 -0.17596616 -0.13874662 9317406
-0.046408772 -0.15249889 -0.13797104 9970457
-0.03605051 -0.15692855 -0.14201342 7869705
-0.024503199 -0.15978773 -0.14326231 7085585
-0.0085900826 -0.16137896 -0.14025855 5970444
0.0039735464 -0.16225144 -0.13789095 6824210
0.02618729 -0.15352608 -0.13679907 8865590
0.032963794 -0.15045179 -0.13610996 9316643
-0.047474906 -0.1452457 -0.14035825 8266261
-0.03831372 -0.14425844 -0.14147846 7085585
-0.024896707 -0.14142954 -0.14315596 6166535
0.0022516027 -0.14021724 -0.139009 9199685
0.027936177 -0.14762519 -0.13803081 7544848
0.036370125 -0.14513753 -0.13757654 8078134
0.048634402 -0.14045872 -0.13659704 10245445
-0.030992819 -0.13483635 -0.14102876 6501386
-0.022052515 -0.12981404 -0.1482687 5843729
-0.0092919189 -0.12178933 -0.14239167 6173467
0.025413532 -0.13143608 -0.13981202 6173472
-0.016910493 -0.11613192 -0.13689163 4862235
-0.0049782316 -0.091999397 -0.13665375 4936754
0.0076053338 -0.091614768 -0.13779265 4408865
0.024488466 -0.093022227 -0.13634591 4869674
0.034642905 -0.091565907 -0.13674799 5528633
-0.004146914 -0.086908981 -0.13790908 3817257
0.007993524 -0.084399104 -0.14168383 4015397
0.022311457 -0.082640685 -0.14031632 4212515
0.036462866 -0.082914568 -0.13816604 4016421
0.046798151 -0.086259604 -0.13574205 1778947
0.013775744 -0.07427486 -0.1435414 590851
0.019457856 -0.074890345 -0.14227265 590593
-0.016331654 -0.19797511 -0.12173435 7543312
-0.0078703845 -0.1989139 -0.12521736 6952717
0.0086200312 -0.19719256 -0.12937011 5901573
0.021889824 -0.19881389 -0.12659927 6360583
0.034605678 -0.19756754 -0.1232526 8397333
-0.031302374 -0.18218203 -0.12106367 10301210
-0.019692481 -0.18461891 -0.12359544 8266002
-0.0072194058 -0.18758047 -0.12789278 7610132
0.007251374 -0.18721929 -0.12818417 6295046
0.022683553 -0.18703911 -0.12833533 6230538
0.036078665 -0.18643929 -0.12637405 7608079
0.047899909 -0.18177903 -0.12520044 9051162
-0.046295695 -0.16629547 -0.13413361 13736349
-0.038339593 -0.16950257 -0.12892401 8201753
-0.022074219 -0.17237267 -0.12598638 7810337
-0.0067322771 -0.17543799 -0.12892289 7021332
0.0069576032 -0.17266689 -0.12898232 6558730
0.022197966 -0.1729375 -0.12814635 6889743
0.03816402 -0.17351128 -0.12645246 8662302
0.048222601 -0.17468847 -0.12509462 10173491
-0.047806371 -0.1561067 -0.13356781 7354666
-0.036577214 -0.15871808 -0.13029462 6758674
-0.026215224 -0.15964349 -0.12980029 5840396
-0.0053607197 -0.15629032 -0.13250691 6433303
0.0084753456 -0.16171728 -0.13134536 5973522
0.02495436 -0.15896656 -0.12824564 7415059
0.03576944 -0.15620065 -0.12447567 7674894
0.051877771 -0.15623815 -0.12330197 8856601
0.072274946 -0.15108284 -0.12297651 6041634
0.07573618 -0.15035284 -0.12163546 10102047
-0.046212573 -0.14681314 -0.13304539 4330761
-0.037636802 -0.14612658 -0.13069256 6239267
-0.026499141 -0.14094932 -0.12955084 6767655
-0.0046520652 -0.14220203 -0.12668712 6306839
0.0072743692 -0.14509936 -0.12662825 6171154
0.025103312 -0.14155957 -0.12552916 6167055
0.03760631 -0.14434645 -0.12698022 7085843
0.051135767 -0.14335392 -0.12679745 7609875
0.072445557 -0.14241835 -0.12493724 9051925
0.076395385 -0.14500844 -0.12253925 8589578
-0.018749366 -0.12558287 -0.12715882 7951924
-0.0089259809 -0.1239078 -0.12300237 6769947
0.0092134774 -0.12766919 -0.12654264 4728331
0.024022482 -0.12740564 -0.12626404 6232846
0.038049255 -0.1258909 -0.125677 6362120
0.052487031 -0.12809499 -0.12396426 6493961
0.061719622 -0.1271743 -0.12222648 7216655
0.07969217 -0.13192055 -0.12224314 8008739
-0.017084731 -0.11320594 -0.1247135 7173186
-0.0073947385 -0.11272414 -0.1237395 4540699
0.0061887493 -0.11105391 -0.12359921 3815189
0.024598554 -0.1118316 -0.12533163 4404249
0.036434561 -0.11325389 -0.12542836 4597774
0.051408179 -0.11628044 -0.1244354 3482125
0.061442886 -0.11565846 -0.1209342 7094317
-0.019414943 -0.1040688 -0.12697223 2898215
-0.0061108028 -0.098272145 -0.1298048 3752480
0.0064364602 -0.097315438 -0.12781109 3751447
0.022901913 -0.09797132 -0.12876697 3883035
0.037705339 -0.097383544 -0.12871012 4014875
0.047002334 -0.095604174 -0.12658717 2304275
-0.0038861257 -0.088524655 -0.13409492 3159074
0.0019345405 -0.08857812 -0.13247585 3748883
0.021050235 -0.088853076 -0.12950823 4079394
0.04112462 -0.084692754 -0.1290191 3752740
0.047376238 -0.08352977 -0.12739553 1975061
0.065567136 -0.078880884 -0.12047544 1252629
0.038764227 -0.069487475 -0.12087552 3752754
0.051245581 -0.069254637 -0.12105824 923148
0.064440392 -0.071205899 -0.12048247 990996
0.038601719 -0.056993805 -0.12017133 4870725
-0.0057758894 -0.21064642 -0.10614668 8986383
0.014970597 -0.21175787 -0.10575367 7412751
0.017651854 -0.21094419 -0.10781291 8004631
-0.018891562 -0.19870192 -0.11305318 9578528
-0.0090818424 -0.20249304 -0.11124277 6558218
0.0046789222 -0.20268333 -0.10791472 5442563
0.024234382 -0.2023375 -0.1114549 6033159
0.034253806 -0.19830871 -0.11242049 7610132
0.047605142 -0.19589192 -0.11208208 6100999
-0.030515522 -0.18167587 -0.11917629 9314328
-0.019517291 -0.19008374 -0.11378103 7345164
-0.010369825 -0.18784744 -0.1120818 5968650
0.010162706 -0.18653084 -0.11751625 5246468
0.020303652 -0.19003993 -0.11815058 4852999
0.038479771 -0.18779434 -0.11294304 7676949
0.048774648 -0.1845194 -0.11278481 8793629
-0.05232621 -0.16711351 -0.109063 6631967
-0.030738354 -0.17937234 -0.11916862 10303005
-0.020437799 -0.17264543 -0.11307018 7743516
-0.011806441 -0.17544009 -0.11412501 6427402
0.01238342 -0.17356941 -0.11076703 6236171
0.019154821 -0.16946305 -0.11329892 6700804
0.039666295 -0.1732913 -0.11417968 7019534
0.04882421 -0.17224492 -0.11229153 7749934
-0.06410218 -0.15304232 -0.10772764 4467994
-0.052265711 -0.15713742 -0.11116342 4730138
-0.039603855 -0.15749148 -0.11167586 5190175
-0.017422572 -0.16005431 -0.11479079 8599339
-0.006482183 -0.15673813 -0.11436953 5513489
0.010690009 -0.15782928 -0.11257774 5972502
0.020779215 -0.16126098 -0.11396511 7424288
0.038793065 -0.157198 -0.11512127 6953483
0.051660482 -0.15622309 -0.11421099 7806996
0.065820858 -0.15253241 -0.11383608 8597798
0.079515912 -0.15320028 -0.11134472 8461586
-0.077848777 -0.14187229 -0.10633333 9211018
-0.064248361 -0.14221089 -0.10762026 3354140
-0.053696927 -0.14073381 -0.10864268 3222551
-0.03579459 -0.14037852 -0.10908012 4864532
-0.022972485 -0.13790657 -0.11226241 6043926
-0.0085468171 -0.13905084 -0.10988881 3680011
0.0077704852 -0.14080565 -0.11239192 4596242
0.023781147 -0.13969837 -0.11555909 5249548
0.039878257 -0.14184651 -0.11539529 6428168
0.051833671 -0.14305291 -0.11298577 7282191
0.068879656 -0.14172377 -0.11119515 7608330
0.078447349 -0.14292431 -0.11348652 7675665
-0.075072579 -0.13474618 -0.10687991 5002328
-0.064928979 -0.128212 -0.1068318 3818030
-0.051974766 -0.1277796 -0.10811826 2566933
-0.036606729 -0.12923022 -0.10876255 4209684
-0.02158485 -0.12870598 -0.10968685 5913615
-0.0097866626 -0.12762108 -0.1132727 5785105
0.0072529656 -0.12676407 -0.11097918 3745299
0.023754083 -0.12889574 -0.11518213 4267532
0.037024785 -0.12906438 -0.11430423 5509125
0.054758526 -0.12854403 -0.11300848 6099462
0.065970279 -0.12867337 -0.11211168 7213062
0.07953129 -0.12939042 -0.11238852 8462878
-0.062139791 -0.11781167 -0.10606968 1911324
-0.051026598 -0.11533194 -0.10737506 2239000
-0.038276624 -0.11478749 -0.1071954 1317644
-0.020205364 -0.11583995 -0.11141894 2368015
-0.0099235019 -0.11486645 -0.11590299 2961428
0.0091904001 -0.11063964 -0.11518817 3289617
0.021716941 -0.11153714 -0.11477281 2959374
0.037522811 -0.11280452 -0.1158378 3222026
0.053657971 -0.11388672 -0.11236129 4136971
0.066526495 -0.11355573 -0.11058537 3941130
0.077572793 -0.10756906 -0.10774757 2897691
-0.023911204 -0.093846403 -0.10577288 1909519
-0.0046621878 -0.098865718 -0.11106917 4538662
0.0095880395 -0.10063422 -0.11539389 3815702
0.022345815 -0.099920347 -0.11334423 3684378
0.038074091 -0.095175222 -0.10947251 1776400
0.049093205 -0.098599948 -0.11221983 1709065
0.072740845 -0.097962089 -0.1068851 1844497
0.077664763 -0.099145465 -0.10972197 1516568
-0.0062159132 -0.076502025 -0.10759321 4342832
0.011175299 -0.081843749 -0.10958358 4339746
0.025807662 -0.08084064 -0.11014523 2697241
0.037336167 -0.082484439 -0.11271844 1908243
0.04736831 -0.081202403 -0.11231332 724230
0.067635499 -0.08152505 -0.11121184 1187347
-0.00055707223 -0.07129626 -0.10602525 3421727
0.011233455 -0.066877857 -0.10848749 3684131
0.023340242 -0.067122459 -0.11180653 3092769
0.03731237 -0.068065837 -0.11551282 2369562
0.050706156 -0.067684367 -0.11321488 987915
0.063873954 -0.070534423 -0.11224559 726292
-0.00095892698 -0.0479469 -0.10696048 5200986
0.0099980682 -0.052136403 -0.10791872 3488041
0.02220903 -0.053046074 -0.11243835 2895910
0.037088666 -0.052467186 -0.11423201 1843997
0.050389592 -0.054621708 -0.11334434 1972497
-0.0015919659 -0.041255914 -0.10628125 3885381
0.010177322 -0.041495673 -0.10764097 2107683
0.021760194 -0.040317222 -0.10865752 1187358
0.036804285 -0.040420152 -0.10801939 1974296
0.045450062 -0.042605367 -0.10782772 4531726
0.023926374 -0.22598439 -0.096419133 8417302
-0.0034599269 -0.21099922 -0.097727925 7933703
0.011183573 -0.21425635 -0.096801005 6691336
0.020059451 -0.21862811 -0.093827792 8473108
-0.017822834 -0.19790046 -0.097212359 8731190
-0.0076950877 -0.20252617 -0.097305179 6756622
0.0088051055 -0.20219789 -0.097434275 5311492
0.021318059 -0.202923 -0.097674526 6427400
0.036176104 -0.20125362 -0.097969182 8071192
0.045327276 -0.19928603 -0.10096738 6626049
-0.020141628 -0.18787391 -0.097371943 8533803
-0.013092021 -0.18820314 -0.10133374 7022363
0.009285043 -0.18333185 -0.09161415 5782300
0.023949658 -0.19203466 -0.10024085 6889751
0.040519148 -0.18711242 -0.10292366 8271395
0.04812146 -0.18414216 -0.10211465 7355425
0.069630772 -0.18494718 -0.09315338 9711905
0.080461122 -0.18591632 -0.093045071 9582117
-0.062460825 -0.16812606 -0.092760026 4208156
-0.054921675 -0.16696195 -0.093339831 3814429
-0.032644775 -0.17309077 -0.098418176 4604722
-0.023229269 -0.1759931 -0.099984191 7682856
-0.0044172253 -0.17174205 -0.094392434 6181405
0.0069137621 -0.17278706 -0.094339788 5980446
0.021793222 -0.17387949 -0.093967065 6703410
0.036947027 -0.17483552 -0.092600718 7822153
0.049426068 -0.17626895 -0.099574715 5851697
0.071805671 -0.17958705 -0.092414521 8851210
-0.078842737 -0.15321025 -0.099638127 5649187
-0.066771068 -0.15663034 -0.096669048 3683102
-0.051994093 -0.15680242 -0.095221139 3025944
-0.039896239 -0.1550831 -0.092285052 3025430
-0.024320016 -0.15297776 -0.09214437 3220756
-0.0038625086 -0.153515 -0.093416847 2497294
0.0053594536 -0.15609053 -0.094868235 3351058
0.020325957 -0.15958709 -0.098931573 5715235
0.041403253 -0.1578898 -0.098872066 5509124
0.048783105 -0.1556288 -0.093617871 5837062
0.070219949 -0.1517885 -0.096999675 7343878
0.076852605 -0.15295394 -0.097935528 7150348
-0.077824764 -0.14513201 -0.10255398 5127225
-0.06864807 -0.14316835 -0.10256551 2435606
-0.050936136 -0.14371446 -0.10048945 2894100
-0.038311873 -0.14245111 -0.09646789 3681557
-0.022195112 -0.1408474 -0.095338248 3353618
-0.0078470809 -0.14240979 -0.097365178 2038028
0.0053767841 -0.14305745 -0.097963624 3350543
0.021580117 -0.1425122 -0.097524844 4398351
0.041295305 -0.14521754 -0.099246867 5640967
0.050403707 -0.14504193 -0.096740209 5967877
0.068816207 -0.1432582 -0.099733524 7410696
0.078256652 -0.14215349 -0.096688099 7871757
-0.076023534 -0.13283645 -0.10381325 3095855
-0.068454482 -0.12860268 -0.10337241 2435867
-0.051048979 -0.12961119 -0.1040952 2369808
-0.036829513 -0.12746923 -0.10395934 2501134
-0.022045281 -0.12567227 -0.10046627 3745292
-0.0056374972 -0.12813097 -0.097729899 3155728
0.0063032149 -0.12687327 -0.099417098 2826510
0.022622263 -0.1285819 -0.096380278 3284237
0.038771957 -0.12714219 -0.099740222 5249032
0.055315126 -0.12676394 -0.097953677 3937541
0.067596041 -0.12776458 -0.099889323 6033929
0.079000749 -0.1294982 -0.099349238 6889234
-0.062510647 -0.11774148 -0.10340018 1252368
-0.051624365 -0.11411913 -0.10332283 1515792
-0.037060067 -0.11628953 -0.10439771 1646351
-0.02249532 -0.11687505 -0.097880326 2366736
-0.005291983 -0.11304408 -0.095190331 4141597
0.0064480365 -0.11375029 -0.097905278 3090709
0.023644339 -0.11087116 -0.098682337 3745037
0.03652994 -0.11129623 -0.095060714 3878664
0.053226214 -0.11247531 -0.09562654 2234633
0.066158973 -0.11203033 -0.098742872 2434316
0.078622788 -0.10854708 -0.10286992 3226646
-0.034947257 -0.09793175 -0.098793395 2501150
-0.023023007 -0.10253727 -0.093357466 5585179
-0.007088976 -0.097853802 -0.097520836 3747613
0.0085831145 -0.096567169 -0.096404143 2564370
0.021609049 -0.09576878 -0.097714074 1578248
0.037097823 -0.098471858 -0.09611275 1051909
0.051569678 -0.097334363 -0.095552832 855301
0.067807809 -0.099229716 -0.097794361 1777421
0.077941924 -0.10095026 -0.10253818 2107662
-0.030709421 -0.085550837 -0.099715784 3943183
-0.021302976 -0.081965253 -0.093423449 4934708
-0.0052186511 -0.081555709 -0.095191412 3551518
0.0075622373 -0.081728257 -0.095405489 2697493
0.020574072 -0.082564972 -0.099826559 1842704
0.039916374 -0.08329425 -0.10144866 789766
0.052450314 -0.08318425 -0.099992722 658695
0.064478256 -0.082040124 -0.099770829 988176
-0.018315161 -0.067617007 -0.09175092 2631449
-0.0058950344 -0.066975601 -0.095071383 3422245
0.0074270717 -0.067607135 -0.097644076 2237715
0.017950311 -0.069085449 -0.10023545 1908754
0.035376064 -0.068529084 -0.10017868 1383701
0.054974504 -0.067039117 -0.096051283 921874
0.063006423 -0.071961395 -0.10104546 791057
-0.016458368 -0.055836827 -0.092088237 4673344
-0.0062487167 -0.052542802 -0.096846044 3093539
0.0056613316 -0.053742547 -0.10226687 2237461
0.020244397 -0.051900014 -0.099311963 2630936
0.035215117 -0.055946682 -0.093945146 2234633
0.05463241 -0.057537343 -0.10117297 1249813
-0.0072436878 -0.038649376 -0.097714648 2961181
0.0067664464 -0.037572574 -0.10184131 1054996
0.021576578 -0.035578649 -0.10303138 1382419
0.033956606 -0.035139896 -0.10308488 4204042
-0.0046083876 -0.027882243 -0.098495029 7819049
0.0070822719 -0.02755912 -0.098039255 6176791
0.024433909 -0.02976042 -0.10175325 6768667
-0.0013363007 -0.21029365 -0.087385438 8263953
0.010897918 -0.21119088 -0.08492355 7279883
0.020160271 -0.21579355 -0.08759243 8926490
-0.0049305046 -0.20228615 -0.086185977 8271400
0.0084735462 -0.20267491 -0.083083712 7544854
0.022633126 -0.20149221 -0.083438866 8135960
0.033293661 -0.20251149 -0.084697448 9519927
0.059566759 -0.19637893 -0.078489661 10451580
0.068685234 -0.19704293 -0.077597007 9249559
0.077942684 -0.19881414 -0.077060208 9450796
-0.046989717 -0.18152925 -0.077031359 7742746
-0.042838398 -0.18205713 -0.076296046 6235412
-0.00210579 -0.1915848 -0.081492774 7095331
0.0056421165 -0.18983947 -0.081828639 6764061
0.020044528 -0.18474512 -0.086671457 7227179
0.031250112 -0.19432139 -0.083391972 12366756
0.05517441 -0.18567367 -0.080118924 8008231
0.068121165 -0.18629344 -0.082250662 8462869
0.079129659 -0.1857073 -0.080040976 8791834
0.091401421 -0.18458502 -0.076654546 10627106
-0.064689495 -0.17005257 -0.085825466 5649182
-0.053526893 -0.17152017 -0.080447689 6169621
-0.038097579 -0.17040013 -0.079661697 4142370
-0.024495544 -0.16910401 -0.079111405 3485214
-0.0049511641 -0.17031594 -0.080377176 3025687
0.0075965184 -0.17239484 -0.082501754 3683873
0.022489501 -0.17194365 -0.082759023 3684132
0.037206829 -0.17049021 -0.083174489 4407598
0.048950642 -0.16887201 -0.082809493 5258283
0.068016864 -0.17797729 -0.081014842 8207144
0.083159015 -0.17735143 -0.081117712 7480602
-0.076282777 -0.15100463 -0.079001658 855822
-0.066516504 -0.15584961 -0.08202026 4855311
-0.056942225 -0.16033976 -0.080587409 5575177
-0.035610966 -0.15876433 -0.086917996 2696466
-0.023142384 -0.15845264 -0.086076073 2170126
-0.0065002427 -0.15718141 -0.083318226 1840909
0.006376246 -0.15914297 -0.084103741 2366733
0.022467159 -0.1598275 -0.078679442 2366990
0.038350601 -0.15980496 -0.078716077 2631955
0.050474122 -0.15821353 -0.081275038 4336408
0.073254645 -0.1561929 -0.080383874 6565656
0.081161089 -0.15630341 -0.079692915 8003347
0.091627523 -0.1564714 -0.07924255 8927031
-0.076858141 -0.14953242 -0.077962808 527372
-0.073393211 -0.14996606 -0.077094115 1383450
-0.049017347 -0.13536116 -0.081606165 2367506
-0.037330858 -0.1422431 -0.081367373 1315590
-0.024088556 -0.14581369 -0.088171475 2104077
-0.0071038259 -0.14585923 -0.081181116 1446151
0.0069164601 -0.14449652 -0.083819993 1709832
0.022944273 -0.14477432 -0.078895845 1643269
0.034626637 -0.14509863 -0.081116967 2758663
0.054499835 -0.14674927 -0.084792644 5249287
0.066291668 -0.14711313 -0.085254595 6953748
0.08243636 -0.14547072 -0.080165833 6821382
0.092152037 -0.14537919 -0.07945548 7284507
-0.045507208 -0.12933199 -0.076053128 1249817
-0.036607068 -0.12779458 -0.079501234 987402
-0.024505224 -0.12545596 -0.084764265 1840654
-0.0077299727 -0.12743367 -0.085705668 4203026
0.0053825281 -0.12714589 -0.086476922 2498576
0.022295626 -0.13075718 -0.082716703 2957829
0.039800093 -0.12569714 -0.085768752 3874826
0.050928202 -0.12724985 -0.082314618 2893066
0.067832917 -0.12391439 -0.086826831 4001541
0.089454174 -0.13426709 -0.076878026 7741964
0.091701269 -0.13361727 -0.076307684 5577244
-0.046337858 -0.10772076 -0.08037056 3160095
-0.033314973 -0.11470719 -0.07864736 1316623
-0.023520257 -0.11115295 -0.082075201 1447949
-0.0073427572 -0.10968663 -0.083889067 1711116
0.0046316618 -0.10917496 -0.08739987 2103306
0.024043228 -0.11524425 -0.087418608 3416078
0.041531865 -0.11190233 -0.087915979 2694917
0.051604975 -0.11261879 -0.084941112 1447174
0.063183978 -0.11180682 -0.087219343 2038792
-0.034013003 -0.096782856 -0.078994133 4604452
-0.020635359 -0.10085971 -0.079203516 2432784
-0.0065313983 -0.09838555 -0.081263065 2038283
0.005718221 -0.096906722 -0.083997548 1445637
0.023598226 -0.097414523 -0.084409662 3611915
0.040397491 -0.097332239 -0.082409956 1249543
0.055671699 -0.10092904 -0.085735895 658695
0.063293606 -0.098872095 -0.087186329 1710860
-0.019115297 -0.080726847 -0.080265887 3417108
-0.0081124622 -0.082328804 -0.084271342 2433554
0.0052284771 -0.085514449 -0.084640406 1511429
0.022918124 -0.084841833 -0.084738567 4529677
0.042278592 -0.083472453 -0.080067821 921610
0.051419735 -0.080429092 -0.085743316 790282
0.060168948 -0.084158227 -0.088826559 855050
-0.030603737 -0.064857133 -0.077067479 5321737
-0.018983224 -0.067037761 -0.079999916 2828050
-0.01050764 -0.067540228 -0.08511702 2236687
0.008127478 -0.06675107 -0.080219284 4663309
0.020999229 -0.066831134 -0.081886381 4334605
0.043390147 -0.071020387 -0.076865748 789514
0.050781112 -0.070878319 -0.084263198 790033
-0.031678956 -0.057630241 -0.07551945 6569492
-0.020710016 -0.052939042 -0.08039733 3679502
-0.012066987 -0.052461829 -0.083262168 2235405
0.0064964495 -0.055053167 -0.079762198 4401678
0.021573011 -0.050806064 -0.080411829 3678476
0.033827532 -0.051463399 -0.076281063 4795162
-0.016852569 -0.042402308 -0.083050847 3678477
-0.01203386 -0.040211361 -0.085861258 2827283
0.0083696842 -0.03881149 -0.078872353 3942672
0.022730924 -0.04130777 -0.079241015 3679252
0.033048261 -0.041226141 -0.07725545 4008213
0.0097644068 -0.021795489 -0.077319801 4272157
0.015708249 -0.0279027 -0.077447057 3876366
0.0068374993 -0.19771583 -0.07368353 10709341
0.059490409 -0.19674066 -0.072896242 7478544
0.06597539 -0.19778796 -0.070443906 9323315
0.079138421 -0.19704233 -0.072947085 10697776
-0.052879386 -0.18088689 -0.06846498 9188391
-0.039016932 -0.18383235 -0.06590303 7944483
-0.0293306 -0.182546 -0.062370952 1119769
0.0039506904 -0.1929379 -0.072311603 10578255
0.024514765 -0.19366312 -0.074597426 6904122
0.05922937 -0.18778256 -0.073985137 7281168
0.067089096 -0.18778127 -0.071190611 7941410
0.079426311 -0.18702072 -0.071507469 9386033
0.090712741 -0.18419233 -0.073344044 9380654
-0.075801417 -0.16720445 -0.062119897 8924186
-0.065984756 -0.17033583 -0.066218577 7608077
-0.052537274 -0.1711614 -0.069684654 6690058
-0.041789226 -0.17485364 -0.066363968 6690057
-0.023278577 -0.17265898 -0.072202757 3354918
-0.0081683416 -0.16702752 -0.071410947 4211762
0.0069224522 -0.16750894 -0.07260181 4803641
0.020764828 -0.166448 -0.073390752 6119244
0.035684187 -0.16631185 -0.074062467 5132343
0.066991419 -0.17833847 -0.072883151 8010278
0.078570448 -0.16852605 -0.071712531 7883565
-0.07670214 -0.15671735 -0.06325005 8661028
-0.06815099 -0.15698025 -0.066466153 5770759
-0.056385353 -0.15863119 -0.068661556 5443332
-0.030755922 -0.16017792 -0.060787685 4079892
-0.020942468 -0.15627882 -0.065123104 2105872
-0.0073711295 -0.15922788 -0.066040397 1974803
0.0076764799 -0.15838793 -0.066451728 3027489
0.022343317 -0.15742865 -0.067861862 2830366
0.037372533 -0.15645829 -0.069270991 3421728
0.049846254 -0.15395463 -0.070675395 3421209
0.073989049 -0.15290952 -0.067654788 5245954
0.081229672 -0.15670393 -0.067308418 7281675
0.091133825 -0.16037548 -0.068690397 8008483
-0.075914644 -0.14872225 -0.06410224 2887174
-0.067012876 -0.14467135 -0.064444222 2365968
-0.052862898 -0.14224838 -0.068194561 1381640
-0.043463867 -0.14296016 -0.072997399 1774599
-0.021004504 -0.1447309 -0.062258467 1645838
-0.010208719 -0.14780504 -0.061762158 921863
0.0099041527 -0.14683239 -0.062772721 1579276
0.022364955 -0.14500876 -0.064540505 1776396
0.038121328 -0.1459512 -0.064067177 2237452
0.051977832 -0.14487091 -0.067478567 4995342
0.069726773 -0.14426078 -0.065723419 6695949
0.08073575 -0.14274706 -0.067397065 6624778
0.09073323 -0.1471092 -0.060420092 7146506
-0.061774861 -0.12881701 -0.062068269 2106648
-0.052474059 -0.12798035 -0.067056537 1251084
-0.041471172 -0.12399334 -0.072776668 1250573
-0.022115879 -0.12555446 -0.070877619 3483666
0.0014540255 -0.12390802 -0.071563959 4067850
0.022602828 -0.12414958 -0.067517854 724225
0.038945418 -0.13214265 -0.060488053 3355402
0.053847454 -0.12933439 -0.07402578 4799755
0.086054601 -0.13290806 -0.066642836 5180677
0.091013722 -0.13144568 -0.071866043 3870216
-0.050260745 -0.11637544 -0.063505016 988426
-0.037608542 -0.11173458 -0.068211287 1448721
-0.025705732 -0.10864557 -0.07228636 2170897
-0.010192229 -0.10592778 -0.074765079 3418906
0.024302065 -0.1196309 -0.066105597 658179
0.04855191 -0.11103989 -0.073260352 1248775
-0.034820527 -0.098304681 -0.064770028 2238230
-0.026046492 -0.097945184 -0.071298242 1512713
-0.0095801931 -0.096550561 -0.072247259 1708291
0.0031588469 -0.090793394 -0.070334628 3017475
0.029734224 -0.10428395 -0.070735529 4667428
0.041232437 -0.096401207 -0.067450233 592902
0.047910832 -0.1039335 -0.072878562 460806
-0.033574454 -0.084264323 -0.063130915 1514507
-0.02503271 -0.081685811 -0.066502169 1249796
-0.0047719069 -0.081821494 -0.067416646 2951170
0.001812774 -0.085997693 -0.070047334 2754305
0.023975676 -0.085935608 -0.071420364 3810055
0.039715223 -0.082814515 -0.067807183 658181
-0.045388825 -0.067661151 -0.0612748 6637327
-0.039849836 -0.062830992 -0.065097503 6239759
-0.019303707 -0.064667776 -0.06389121 3415557
-0.0075322865 -0.063311733 -0.064337894 2429700
0.0079624075 -0.064628914 -0.072324537 5187598
0.019119425 -0.065112442 -0.071723573 4727818
0.041194968 -0.06980481 -0.069874905 1182981
0.046820316 -0.063236676 -0.062321357 6174227
-0.045970961 -0.055169147 -0.060635082 8606264
-0.036398783 -0.053614564 -0.066560179 6173454
-0.022881895 -0.05297213 -0.068868808 3940871
-0.0080381958 -0.054605432 -0.068074398 2035972
0.0067307372 -0.053153552 -0.070669748 4990216
0.022324793 -0.052495819 -0.069394656 4530696
0.039488498 -0.051603347 -0.068342753 6174230
0.046685912 -0.056370743 -0.062160142 7620639
-0.033135302 -0.042129591 -0.062815294 6239501
-0.02228507 -0.03771425 -0.067612976 5713417
-0.0080279782 -0.036043487 -0.066384353 5385739
0.0043524867 -0.036911123 -0.066625923 4793608
0.026499672 -0.039674208 -0.071143635 4926230
0.035595328 -0.042074077 -0.066270113 6700316
-0.018420015 -0.028511332 -0.061582632 5713418
-0.0077270493 -0.025805669 -0.063488372 5253639
0.00451193 -0.023372922 -0.063671477 4597257
0.02557384 -0.01935211 -0.062203489 3810828
-0.0010061094 -0.012646767 -0.063441724 5453848
0.0011428496 -0.012210106 -0.063716561 5125143
-0.080182523 -0.18225408 -0.048467465 8464159
-0.067304432 -0.18154131 -0.047576033 8002320
-0.051523842 -0.18208051 -0.050658103 8329744
-0.039322592 -0.1839786 -0.053060889 8465957
0.087194994 -0.1824939 -0.049173471 7415832
0.094290659 -0.18125577 -0.04777151 7807505
-0.09110114 -0.17031185 -0.050554913 9260610
-0.080683865 -0.17311172 -0.050035752 7411727
-0.067044601 -0.17195538 -0.049669135 7217426
-0.053400792 -0.17312184 -0.050819382 6951687
-0.041760053 -0.17416432 -0.053659346 6690829
0.086429156 -0.17067389 -0.052130211 7812383
0.09581475 -0.17179595 -0.05103213 8070166
0.10632662 -0.16597262 -0.050749406 3016978
-0.078867905 -0.1575972 -0.052014511 7675933
-0.070048288 -0.15866086 -0.053514466 6491911
-0.058438707 -0.16359818 -0.0492719 6031875
-0.033805348 -0.1608822 -0.050983112 4671271
-0.025231084 -0.15467551 -0.053100862 5067576
-0.0043425327 -0.15299191 -0.058116686 2632735
0.0055888537 -0.15348949 -0.058003727 3817518
0.025724243 -0.15133844 -0.059105992 4278334
0.042263974 -0.1522361 -0.055542223 5593614
0.049885187 -0.15325101 -0.055703741 8087840
0.084419616 -0.15739098 -0.052960243 6363917
0.09611433 -0.15817046 -0.051544614 7869963
-0.076844774 -0.14936215 -0.052414089 4133899
-0.065328695 -0.14130424 -0.052751824 2498840
-0.058727648 -0.13879681 -0.058936134 1512456
-0.022664258 -0.14208874 -0.053648427 2172178
-0.0070386613 -0.14190891 -0.052701976 1447947
0.0075030336 -0.14188534 -0.05260602 2435353
0.02222801 -0.14065517 -0.054939501 2764829
0.036379088 -0.14116196 -0.056750547 2567452
0.052375197 -0.14521545 -0.055874351 4206858
0.065862484 -0.14097697 -0.05384006 6838565
0.082195185 -0.14307536 -0.054900151 5315854
0.09606526 -0.14798297 -0.050447058 5707530
-0.066092283 -0.1277654 -0.051813893 2896675
-0.058672003 -0.12316265 -0.058259983 987915
-0.021187704 -0.13193533 -0.050192256 1711371
-0.01005035 -0.13288741 -0.047745906 789764
0.0087957084 -0.13376886 -0.0459744 790023
0.024594165 -0.12963761 -0.049227763 922376
0.037399918 -0.12803842 -0.053202812 1120270
0.053926364 -0.12615623 -0.050591934 2041623
0.066011302 -0.12457845 -0.049131621 3884579
0.079929553 -0.13390294 -0.057923444 4142622
-0.064748533 -0.11383533 -0.049938511 2436126
-0.054210115 -0.11158734 -0.05496658 1449229
-0.039111782 -0.10822626 -0.055415392 1580302
-0.027240282 -0.10948157 -0.047769733 920067
0.0076090074 -0.1054652 -0.051566642 1315332
0.027631305 -0.11907483 -0.046649985 790021
0.036719337 -0.11836369 -0.048416901 1646099
0.051257711 -0.11822871 -0.047608752 2961455
0.069715731 -0.11407572 -0.049549021 3752483
0.077090837 -0.10940935 -0.047477528 5200964
-0.063016847 -0.10032304 -0.046409585 2107425
-0.052376371 -0.097699396 -0.049875263 2040338
-0.040440872 -0.097819202 -0.05593086 2106387
-0.016395845 -0.090100281 -0.058456756 788994
-0.0063508195 -0.091524892 -0.058250137 2557698
0.0060469909 -0.10031426 -0.049657363 920580
0.038959078 -0.094073504 -0.05839939 329218
0.073214337 -0.10346173 -0.050122261 921614
0.079992972 -0.10252796 -0.048084695 2698526
-0.048862789 -0.083894126 -0.048236396 1579276
-0.0386668 -0.080509275 -0.0531995 1118981
-0.023699436 -0.077978075 -0.056245923 1183747
-0.0083177052 -0.087325253 -0.05795699 1509122
0.037946489 -0.086195752 -0.058765776 328961
-0.047225799 -0.066805258 -0.050886184 6371348
-0.039692048 -0.068401016 -0.052936591 3678215
-0.023167953 -0.067810558 -0.051653974 2431236
-0.011212423 -0.065883465 -0.055906672 1445377
0.0096546896 -0.063728876 -0.049970552 6102792
0.049715918 -0.065473855 -0.051393364 6436367
-0.046978276 -0.057127737 -0.051086992 7554592
-0.041989692 -0.052065279 -0.053639505 6041868
-0.023012755 -0.058510747 -0.057875704 2365442
-0.0079519264 -0.048376154 -0.059283987 3677700
0.025908282 -0.053408019 -0.050815325 5254930
0.043771785 -0.048126321 -0.055476218 6764562
0.047698442 -0.054276649 -0.051515274 7027733
-0.035583749 -0.037245441 -0.051363088 6304781
-0.024516476 -0.033818781 -0.057090636 5778952
-0.0058588851 -0.035362877 -0.058448151 4334342
0.017798563 -0.032793671 -0.056419134 4270356
0.03920779 -0.03782412 -0.051811203 6764819
-0.031970348 -0.026679629 -0.048367199 6633486
-0.023899229 -0.022121636 -0.051436186 5647623
-0.0091605205 -0.020319825 -0.056270242 5319175
0.0037930054 -0.019665679 -0.058310702 4859143
0.027340613 -0.020808296 -0.052708313 7423515
0.033271633 -0.025444079 -0.049804606 7357464
-0.018952541 -0.011134785 -0.047635347 5647623
-0.0094730919 -0.0096840532 -0.05042791 5187589
0.0070358701 -0.0101904 -0.05201415 4924678
0.024946384 -0.012557453 -0.048866171 6043411
0.030129846 -0.013792797 -0.045010395 7094550
-0.07809563 -0.18324922 -0.038712855 8329496
-0.063964874 -0.1819851 -0.042033754 7874076
-0.052829131 -0.18205225 -0.043207392 8657680
-0.040156569 -0.18336758 -0.038357794 8660513
0.08770854 -0.18282561 -0.042008448 5187098
0.092630632 -0.18139781 -0.043113992 6559758
-0.079086035 -0.17326163 -0.037595145 6755854
-0.068967752 -0.17070389 -0.039086618 6886155
-0.051651563 -0.17110619 -0.041201938 7017991
-0.040860284 -0.17263389 -0.036824673 7217428
0.087928697 -0.17332423 -0.041760262 6559244
0.09637253 -0.1704672 -0.040184092 7413783
-0.076594457 -0.15657213 -0.035266478 6559765
-0.070877582 -0.15943411 -0.038014706 6951949
-0.052294716 -0.16285318 -0.036715265 6689289
-0.035031848 -0.15814333 -0.037202831 5131569
-0.027874004 -0.15213731 -0.039724521 6316612
0.087379329 -0.1568395 -0.04194513 6494478
0.095751204 -0.15845884 -0.038940791 7281685
-0.076025411 -0.14902328 -0.039252385 2036237
-0.068490259 -0.13982067 -0.040350206 2894622
-0.031615958 -0.14791834 -0.033910763 3947805
-0.024318231 -0.14280182 -0.037153862 3751458
-0.0022732469 -0.13550071 -0.044175427 2303256
0.010483908 -0.1407139 -0.036778674 2172944
0.018680418 -0.1371664 -0.036369488 2238226
0.051421538 -0.13713044 -0.034627784 2831375
0.088628203 -0.14838842 -0.04249138 5638661
0.094342381 -0.14665514 -0.038304877 6756632
-0.070069224 -0.12779684 -0.037807517 2174238
-0.02117878 -0.12834466 -0.037460238 987655
-0.0051721581 -0.13210045 -0.042162683 1248775
0.005505275 -0.13184217 -0.042843126 921096
0.024745481 -0.12956835 -0.037665263 2566938
0.036293 -0.12282386 -0.036532708 1776657
0.056869909 -0.13208514 -0.037203476 3686422
0.064763159 -0.12535094 -0.037023634 4476970
-0.068923786 -0.11212042 -0.037696365 2437409
-0.033350453 -0.10747901 -0.043039225 1444354
-0.021761581 -0.11245534 -0.036980633 658695
-0.01381677 -0.11000364 -0.031070128 3486213
0.011388558 -0.10759845 -0.03676546 4802610
0.021394068 -0.11143591 -0.036364112 5788987
0.040396716 -0.11866885 -0.035801727 1777422
0.047315862 -0.11575206 -0.035930056 2566686
0.071546793 -0.11651505 -0.037699085 3423003
0.080179147 -0.1106668 -0.037237313 4739121
0.090660557 -0.10618909 -0.031623825 5466431
-0.065530293 -0.10004903 -0.038542844 1580567
-0.057236642 -0.092630647 -0.041574121 1054480
-0.025117166 -0.10022029 -0.03569774 329729
-0.0034763496 -0.098862559 -0.031990055 5328444
0.0053921593 -0.10247076 -0.034089852 5131056
0.084812254 -0.10234974 -0.038527578 5330993
0.09120962 -0.1017354 -0.031696267 6512175
-0.049385909 -0.081545398 -0.038710076 3219468
-0.040251035 -0.079328328 -0.036956284 1445637
-0.018751163 -0.075887203 -0.03372537 1116419
-0.0074897823 -0.076260656 -0.032308385 262914
0.044109132 -0.08091937 -0.030859828 3545344
0.048189148 -0.07759843 -0.037560131 3808515
-0.047759198 -0.067650221 -0.037638884 6699283
-0.038514644 -0.070250057 -0.040389791 2102022
-0.023297753 -0.071764909 -0.038179848 1248002
-0.011912809 -0.073193036 -0.03689412 525826
0.049742363 -0.06785129 -0.037694559 5647111
-0.046085078 -0.056658898 -0.037910905 6173197
-0.043454111 -0.049993966 -0.037313189 5844748
0.044752143 -0.045140788 -0.039572701 6107147
0.047680628 -0.052932188 -0.037537362 6304268
-0.039986245 -0.037455998 -0.037588 6041869
0.042580407 -0.037140075 -0.037427675 6436111
-0.035222255 -0.022934623 -0.037285395 6107660
-0.028461242 -0.017355185 -0.043200672 5581830
0.037368387 -0.022561913 -0.037446626 6830867
-0.031940069 -0.010597125 -0.034231558 6305037
-0.025307085 -0.0064146062 -0.038136173 5778952
-0.0085926112 -0.0015243844 -0.043098718 5121541
0.0090235248 -0.0016920837 -0.043721475 4989959
0.02546582 -0.0051775323 -0.038672574 6305554
0.033100825 -0.010193292 -0.034515869 6896660
-0.021764705 0.0021806271 -0.035177246 5647367
-0.0072300564 0.006513807 -0.039168417 5121029
0.0075824684 0.0071420982 -0.037613302 4924165
0.024766857 0.0018758391 -0.034251947 5845779
0.030542586 0.0011467878 -0.032391623 8082224
-0.078949213 -0.1800406 -0.028909102 7211520
-0.074895911 -0.18034829 -0.029131316 6760741
-0.036889628 -0.1811467 -0.028020808 9452357
-0.077066258 -0.17174628 -0.025997221 6232083
-0.073706292 -0.17455098 -0.028279575 7870214
-0.045807905 -0.16646273 -0.025694912 7478039
-0.040360142 -0.17257732 -0.025875922 7154207
-0.077317379 -0.15826 -0.02765763 5183766
-0.068892948 -0.16002411 -0.028738042 5247243
-0.051174957 -0.16190691 -0.026212759 4526856
-0.038357999 -0.15659188 -0.022816943 5263669
-0.029904768 -0.15093981 -0.029673435 8355941
-0.068302661 -0.13512239 -0.029725969 1057033
-0.032541815 -0.14621167 -0.021713341 4014370
-0.025054129 -0.14008342 -0.023085086 3620130
-0.00017468631 -0.14969064 -0.020256359 1382157
0.0084464112 -0.14534681 -0.022276023 2436374
0.020021074 -0.13922887 -0.021894496 3224093
0.041899443 -0.13776419 -0.018266449 2109200
0.048839789 -0.13678208 -0.023527011 3753750
-0.069235936 -0.12568571 -0.027709786 1775886
-0.020488694 -0.12846974 -0.022166474 1711886
0.026687965 -0.13067268 -0.022716435 2698263
0.032998443 -0.1253401 -0.022639934 1711888
0.055199184 -0.13206747 -0.021969996 3555355
0.065414026 -0.12578131 -0.02199031 4804656
-0.069672734 -0.11169516 -0.027397305 3682585
-0.017298533 -0.11251014 -0.022966605 1382410
-0.01300012 -0.11221325 -0.020391166 659205
0.012998295 -0.10588163 -0.02885068 5723447
0.023873338 -0.10782795 -0.025256976 5722679
0.039770603 -0.11747578 -0.022130663 1054216
0.048660483 -0.11247791 -0.022678783 1580054
0.070872299 -0.11774983 -0.02392298 3620895
0.082115918 -0.11147516 -0.022073997 4608046
0.090526395 -0.10626087 -0.021778177 7240021
-0.071066856 -0.10214038 -0.027562952 7096099
-0.036130168 -0.091757417 -0.017504685 4466182
-0.020340795 -0.099561393 -0.022702876 592899
-0.0059737698 -0.093823433 -0.023477336 6576695
0.0075500607 -0.097999409 -0.022368254 6314037
0.019074107 -0.10148866 -0.019264266 5524275
0.052215226 -0.10000244 -0.024636876 856846
0.088477798 -0.1026658 -0.022184927 5067553
0.091526665 -0.10082319 -0.022512719 6774066
-0.046288338 -0.077897407 -0.025976982 6765589
-0.040552542 -0.082773007 -0.021735951 5319434
-0.018475272 -0.078517713 -0.022578694 1510660
-0.011502691 -0.082493715 -0.020760605 1248516
0.043959171 -0.081825934 -0.02600175 3216902
0.046084829 -0.078202099 -0.026090525 4201738
-0.046489943 -0.068243191 -0.026708702 6896404
-0.042866118 -0.068144158 -0.019977029 6041870
-0.024088912 -0.073439717 -0.026607053 2429701
-0.010359279 -0.074542753 -0.028767707 723202
0.043835416 -0.06648308 -0.018281821 4727045
0.046792101 -0.067866012 -0.025579683 4989702
-0.045739438 -0.05837597 -0.028722148 6173453
-0.04229489 -0.051971361 -0.022165515 6041868
0.043404061 -0.050973114 -0.019993406 5449992
0.046374191 -0.05369975 -0.026594585 5844233
-0.041027125 -0.037522603 -0.022497814 6042125
0.042438127 -0.037199091 -0.022327272 5909770
0.045164287 -0.042311937 -0.028376151 6632975
-0.038448706 -0.022937179 -0.022946872 5582091
0.039986733 -0.023065487 -0.02268979 5976074
-0.034651347 -0.0079822559 -0.022493811 5647369
-0.028894339 -0.0020954148 -0.028094865 4924419
0.029732049 -0.000660019 -0.02986021 6436368
0.035601262 -0.0077594742 -0.022458352 6173452
-0.030366514 0.00016490719 -0.02602227 5055749
-0.028397109 0.0010119684 -0.028594896 5384708
0.029427353 0.0017979536 -0.029738046 6567954
0.031776428 0.00083421438 -0.025461823 6173451
-0.038364574 -0.15368335 -0.010063412 5001783
-0.029287159 -0.1510893 -0.0039505954 2042130
0.010758477 -0.15034595 -0.0012978208 2765082
-0.032805294 -0.14509906 -0.0073269657 4343594
-0.027676413 -0.14171655 -0.0076039219 2238999
0.0090789897 -0.14628091 -0.008827026 3421983
0.022081584 -0.14149912 -0.0070574945 3422241
0.034709234 -0.13764013 -0.0060319877 3422756
0.046203658 -0.13571885 -0.012828221 2700806
-0.030117661 -0.13482599 -0.0047016107 3094559
-0.022578329 -0.12750639 -0.0076465514 2238229
-0.014171703 -0.1214314 -0.0050581573 857094
0.02812588 -0.13107486 -0.0095999623 2369302
0.033891283 -0.12577963 -0.0059976396 1842960
0.054199055 -0.13152766 -0.0081920084 3358482
0.066003069 -0.12539001 -0.0079515167 4673326
0.075332701 -0.12012715 -0.0076961219 6910557
-0.017511098 -0.11504389 -0.0063756527 1515025
-0.013244282 -0.10969034 -0.0099165514 857094
0.040034093 -0.11659627 -0.0088020135 1842961
0.049987104 -0.11041279 -0.0077782706 1580050
0.07172364 -0.11630782 -0.0058140932 4081181
0.080661319 -0.11038989 -0.0084175384 5003309
0.090726845 -0.10642319 -0.013303644 6387020
-0.03259125 -0.092897676 -0.011446436 6306062
-0.022499951 -0.09508878 -0.0068779038 5584148
-0.0086947624 -0.096875519 -0.0042247241 4928020
0.0080255028 -0.095597588 -0.0070073907 3745550
0.02192569 -0.0955403 -0.0073434822 2036489
0.030452508 -0.095825374 -0.0062221019 1511696
0.056751564 -0.10132959 -0.0044062883 2172965
0.060837634 -0.09254206 -0.0023100635 3749416
0.085750483 -0.10227633 -0.0072699185 5197851
0.091285579 -0.10134825 -0.01138768 6382399
-0.034569759 -0.081797943 -0.0089590074 6699282
-0.025631681 -0.084676214 -0.0035049133 5976334
-0.0073135733 -0.086980872 -0.010673355 2496775
0.0021486224 -0.089330852 -0.011627837 5391391
0.059778955 -0.089763001 -0.00029030442 5060373
-0.03601104 -0.067413874 -0.0082150633 6173454
-0.028283613 -0.067772791 -0.0012592401 5516041
0.038548693 -0.061563984 -0.010898111 4792326
-0.03688487 -0.052352827 -0.0076619205 6173454
-0.029784178 -0.05719395 -0.00031190444 5253641
0.037888918 -0.051477309 -0.0078609046 5055494
-0.037847172 -0.037598677 -0.0073671625 5845005
0.038716961 -0.03735764 -0.0077785393 5252870
-0.037530228 -0.022381742 -0.0071900976 5516298
0.03823451 -0.022080936 -0.0078093102 5515527
-0.036975946 -0.011772076 -0.0087494617 5253127
0.037672285 -0.010346541 -0.0092974603 5712649
-0.030868029 -0.15146875 0.0036149523 2043151
-0.029615819 -0.1521657 0.0030792833 2698771
0.012857895 -0.15137252 0.0054752859 2765083
0.015957806 -0.15055339 0.0049416851 3818293
-0.032487534 -0.14391416 0.00344827 1975828
-0.027493916 -0.14045213 0.0046348851 1779735
0.013347655 -0.1483302 0.0081713907 3093792
0.022306597 -0.14174651 0.0073641026 4080941
0.030900929 -0.13651471 0.0061655808 5001272
-0.024147442 -0.12808859 0.0037976161 2107158
0.028722445 -0.13385436 0.0078118057 2567190
0.036689922 -0.12752153 0.0076580001 3356709
0.05782764 -0.12838858 0.0015607144 1975816
0.064128906 -0.12380438 0.0023351875 4016681
-0.018597724 -0.11447471 0.0022558884 1580046
0.042910345 -0.11720325 0.0083615724 2237971
0.048602384 -0.11076701 0.0077077616 2370075
0.069671094 -0.11452385 0.0026689705 3621147
0.076860748 -0.10712946 0.0014222192 5720612
-0.017958565 -0.092982277 0.0016228927 8145955
-0.0069414359 -0.093947075 0.0028760955 6634263
0.0073004733 -0.094493836 0.0035676572 5386262
0.019642971 -0.093640774 0.0021237184 4138015
0.053849287 -0.097849734 0.0081530623 2698266
0.060842153 -0.09112376 0.0032593894 7360045
0.080016941 -0.10305507 0.0014404472 7095321
-0.030389961 -0.081786931 0.0005248012 8541233
-0.02117734 -0.081937999 0.0025897452 7027990
-0.0078384308 -0.083350971 0.0064945868 6436371
0.0072947778 -0.083451726 0.0074652326 5779218
0.019276863 -0.084512815 0.0054426743 5057050
0.057510305 -0.089659125 0.0055999905 5845775
-0.030528631 -0.062358763 0.0010291397 7553819
-0.021747969 -0.066437349 0.0050654369 6436367
-0.0078411074 -0.06682162 0.010730899 6436368
0.0073529147 -0.06701649 0.011450732 6436370
0.01841219 -0.065434337 0.0089084888 6699283
-0.031740721 -0.050420437 0.002670252 7028244
-0.023008786 -0.052631117 0.0085710213 6305039
-0.0094213178 -0.055959795 0.013599355 6107662
0.0090489294 -0.056398228 0.013891018 5976075
0.023427838 -0.052572612 0.0094431126 6370577
0.031746387 -0.049437203 0.0040915683 6370833
-0.032838006 -0.037115943 0.0039405143 6042125
-0.026007721 -0.038190119 0.011020337 5845004
0.027369069 -0.039423674 0.01041133 5778701
0.033347696 -0.037318241 0.0034903826 5253129
-0.033531021 -0.022383418 0.0059144171 5778955
-0.028188411 -0.024474811 0.012485125 5384456
0.028112307 -0.025378536 0.012581549 4990214
0.033455692 -0.021510709 0.0054919193 5055749
-0.034949675 -0.013203548 0.0031284119 4858116
0.034944165 -0.013777487 0.002944805 4989701
0.01385745 -0.14363551 0.015867271 2299403
0.021201333 -0.13841231 0.01838531 3946528
0.030113081 -0.13603273 0.016528409 6582355
0.026505793 -0.13207597 0.023578649 3486234
0.035322182 -0.12607659 0.02164912 3686702
0.045048848 -0.1223521 0.016459346 4147779
0.040972147 -0.11402793 0.022250902 2238487
0.046559971 -0.10898381 0.018375985 1911840
0.044022392 -0.10325633 0.024024285 3548432
0.049150266 -0.098515227 0.019104719 3090710
-0.00084832421 -0.060750835 0.01502059 7356954
0.0049962867 -0.060671024 0.016421767 7685924
-0.016751984 -0.048292417 0.016340867 7160343
-0.0065495847 -0.050355159 0.017217647 6436625
0.0066154199 -0.050699621 0.017532703 6567955
0.017579988 -0.047693115 0.016742911 7028506
-0.01856431 -0.036664665 0.017777145 6305040
-0.0077567445 -0.037742667 0.021653404 6436883
0.0078475056 -0.037583057 0.022032071 6568212
0.018680271 -0.036458056 0.01861397 6567698
-0.021534573 -0.024997031 0.019381065 5713419
-0.008069138 -0.02718273 0.025251517 5976077
0.0071133506 -0.027591331 0.025717156 6238736
0.021865029 -0.025506942 0.019804426 6436369
0.028123304 -0.12841919 0.031093715 4335886
0.033365823 -0.12487819 0.031222723 4012582
0.035378426 -0.11722387 0.03150459 4270100
